# .PCD v0.7 - Point Cloud Data file format
VERSION 0.7
FIELDS x y z rgb
SIZE 4 4 4 4
TYPE F F F U
COUNT 1 1 1 1
WIDTH 1108
HEIGHT 1
VIEWPOINT 0 0 0 1 0 0 0
POINTS 1108
DATA ascii
86.356575 -20.772451 3.0909016 4294901760
86.336884 -20.636454 3.114676 4294901760
86.237015 -20.769913 3.4078069 4294901760
29.329689 -6.9997787 -0.23411299 4294901760
29.381456 -7.0627351 -0.23168603 4294901760
29.455572 -7.0447655 0.40025106 4294901760
29.31094 -7.0368576 -0.16763583 4294901760
29.2799 -7.0175343 -0.080945402 4294901760
29.311611 -6.9924927 -0.075225577 4294901760
29.243746 -6.9970131 -0.04054039 4294901760
29.213732 -6.9720759 -0.0175 4294901760
29.271736 -7.0304012 -0.014616596 4294901760
29.207701 -6.9972544 -0.0031165336 4294901760
29.206654 -7.0443511 -0.0031117399 4294901760
29.167709 -6.9492702 0.042809855 4294901760
29.180645 -7.0025892 0.04573448 4294901760
71.145988 -17.004227 1.6652818 4294901760
29.384949 -7.0070305 0.12717301 4294901760
45.683296 -10.934466 1.1889658 4294901760
29.357204 -7.0360808 0.16755828 4294901760
29.337334 -7.075902 0.16749692 4294901760
29.349497 -7.046124 0.19065571 4294901760
29.369995 -7.0034614 0.19072473 4294901760
45.792393 -10.960596 1.295688 4294901760
29.364496 -7.0259342 0.20807649 4294901760
45.701088 -10.887812 1.3197674 4294901760
45.745403 -10.981788 1.321618 4294901760
29.302114 -6.984292 0.2508314 4294901760
29.315697 -7.0350318 0.24816668 4294901760
29.295807 -7.0747848 0.25096512 4294901760
81.869431 -19.701027 2.5012162 4294901760
29.242281 -6.9729762 0.3309201 4294901760
86.097221 -20.727505 2.8692763 4294901760
29.142929 -6.9846725 -0.25537542 4294901760
29.24885 -6.9863887 0.37136048 4294901760
29.276949 -7.040554 0.3747623 4294901760
85.718277 -20.679707 3.0007272 4294901760
29.150042 -6.9775219 -0.22096436 4294901760
29.120535 -7.0147042 -0.22083013 4294901760
29.22331 -6.9625311 0.39974612 4294901760
29.232672 -7.0091643 0.40290344 4294901760
29.265585 -7.0645123 0.40641689 4294901760
86.344887 -20.629618 3.0808189 4294901760
86.345009 -20.682144 3.013092 4294901760
29.127138 -6.966135 -0.20932265 4294901760
29.111559 -7.0095897 -0.20929101 4294901760
29.207495 -7.0060802 0.41693792 4294901760
29.245308 -7.0625772 0.41766173 4294901760
86.277672 -20.753468 3.1221228 4294901760
29.156981 -6.9467115 0.23551065 4294901760
29.242422 -7.0618796 0.23933062 4294901760
29.17366 -6.9654565 0.15524337 4294901760
45.779285 -11.027047 1.1919204 4294901760
29.710625 -7.0126233 -0.38551009 4294901760
29.683922 -7.0603681 -0.38240784 4294901760
29.16917 -6.9378099 -0.29857025 4294901760
29.129292 -6.9342108 -0.25517887 4294901760
29.32513 -6.9541712 -0.23400514 4294901760
29.308701 -6.9384108 -0.17328081 4294901760
29.234652 -6.8617458 -0.086529076 4294901760
29.28912 -6.8923059 -0.078021258 4294901760
29.205595 -6.9198861 -0.020374777 4294901760
29.167284 -6.9078488 0.039918784 4294901760
29.24906 -6.9301949 0.1235749 4294901760
29.363785 -6.9871182 0.16463658 4294901760
29.370993 -6.9561443 0.1877647 4294901760
29.205124 -6.91682 0.24697594 4294901760
29.170904 -6.905756 0.32993406 4294901760
29.187931 -6.9186487 0.36751667 4294901760
29.420597 -6.9976726 0.39673325 4294901760
29.402193 -6.984364 0.46303466 4294901760
29.456959 -6.985465 0.54800266 4294901760
29.425739 -6.918539 0.58769596 4294901760
45.63694 -10.849418 0.96694708 4294901760
29.405346 -6.9315753 0.67420828 4294901760
29.423122 -6.9863639 0.67779213 4294901760
45.511528 -10.778126 1.3093073 4294901760
86.660141 -20.573311 3.1252582 4294901760
29.321146 -6.9057784 -0.23678252 4294901760
29.330023 -6.8811889 0.39227113 4294901760
29.369415 -6.9320064 0.39295182 4294901760
29.304693 -6.8900499 -0.1760865 4294901760
29.23737 -6.9155922 -0.083685942 4294901760
29.255917 -6.9673462 -0.080871582 4294901760
29.345997 -6.9116378 0.54566586 4294901760
29.215748 -6.8986535 -0.046252549 4294901760
29.225256 -6.9452481 -0.043394551 4294901760
29.201576 -6.8716841 -0.023246676 4294901760
29.355333 -6.9316478 0.61239481 4294901760
45.476845 -10.769908 0.9229728 4294901760
29.180376 -6.8961949 -0.0088843014 4294901760
29.194748 -6.9438996 -0.0060028145 4294901760
29.399992 -6.9154506 0.62480211 4294901760
29.412273 -6.9718814 0.62822938 4294901760
29.149965 -6.8506866 0.036993198 4294901760
29.246386 -6.8763266 0.12062681 4294901760
45.554249 -10.829745 1.1806258 4294901760
29.228029 -6.8660979 0.1607945 4294901760
29.242453 -6.9138384 0.16094311 4294901760
29.220385 -6.8761148 0.18376635 4294901760
45.684933 -10.851585 1.2875626 4294901760
29.758579 -7.0028925 -0.4299728 4294901760
29.747841 -7.0484958 -0.42704463 4294901760
29.216948 -6.8900743 0.20389265 4294901760
29.360645 -6.9774561 0.20796432 4294901760
45.47065 -10.690248 1.3076048 4294901760
29.181658 -6.8640418 0.24379595 4294901760
81.9217 -19.331926 2.4921024 4294901760
29.16029 -6.8884935 -0.30125412 4294901760
29.102365 -6.8306646 -0.26051217 4294901760
29.114883 -6.8865905 -0.25784793 4294901760
29.164444 -6.8658853 0.36706701 4294901760
67.068359 -15.737357 2.3072667 4294901760
86.375504 -20.558193 2.9875631 4294901760
29.117872 -6.8313651 -0.22625741 4294901760
29.098286 -6.8708892 -0.22618839 4294901760
29.107187 -6.9201064 -0.22346085 4294901760
90.335831 -21.299944 3.2128832 4294901760
86.617554 -20.563196 3.0895417 4294901760
29.080233 -6.8607407 -0.21174149 4294901760
29.078077 -6.9131784 -0.21180572 4294901760
29.185539 -6.9476147 0.41355771 4294901760
67.020729 -15.793959 2.4052379 4294901760
29.655884 -7.0476904 -0.39956895 4294901760
29.091953 -6.8311582 0.22329384 4294901760
29.09273 -6.8519263 0.14890382 4294901760
67.126625 -15.846087 1.7476943 4294901760
30.121775 -6.9667521 -0.39610651 4294901760
29.137379 -6.8330021 -0.30379176 4294901760
29.093309 -6.7815104 -0.26321235 4294901760
29.337936 -6.8119297 -0.24251562 4294901760
29.281788 -6.8343606 -0.17878197 4294901760
29.2104 -6.8117814 -0.08932139 4294901760
29.285763 -6.7968469 -0.083730042 4294901760
29.198784 -6.8179178 -0.0232438 4294901760
29.205593 -6.7664304 0.03418554 4294901760
29.221525 -6.8291364 0.11759148 4294901760
29.214199 -6.815619 0.1577726 4294901760
29.212246 -6.8446732 0.20090817 4294901760
29.174007 -6.8091793 0.24075206 4294901760
29.152418 -6.8100243 0.32373527 4294901760
29.145119 -6.8171496 0.36381474 4294901760
29.325975 -6.8328376 0.38918284 4294901760
29.304718 -6.7657619 0.44920447 4294901760
29.533381 -6.8573561 0.54303586 4294901760
29.544333 -6.8509545 0.58388978 4294901760
29.476065 -6.8113108 0.60558283 4294901760
29.387772 -6.7879219 0.66439599 4294901760
29.480911 -6.9076881 0.75411987 4294901760
29.56543 -6.8707752 0.79673505 4294901760
29.512459 -6.8673916 0.87956202 4294901760
29.327473 -6.8568845 -0.23963086 4294901760
29.32737 -6.7828341 0.38616449 4294901760
29.267883 -6.7838306 -0.17864774 4294901760
29.211714 -6.7619534 -0.092169315 4294901760
29.482512 -6.899127 0.54519594 4294901760
29.287447 -6.7676811 -0.052049074 4294901760
29.271511 -6.8142228 -0.049164716 4294901760
29.207479 -6.8465066 -0.04910671 4294901760
29.367569 -6.8603354 0.58340484 4294901760
29.179987 -6.7663817 -0.023238048 4294901760
29.440523 -6.8536081 0.60796279 4294901760
29.429255 -6.9015203 0.61085808 4294901760
29.168613 -6.7490225 -0.011764829 4294901760
29.176397 -6.803844 -0.0088914912 4294901760
29.177633 -6.8424516 -0.011759077 4294901760
29.382235 -6.8162937 0.61817282 4294901760
29.433643 -6.8817329 0.62243897 4294901760
29.175051 -6.809423 0.034151025 4294901760
29.356289 -6.8784585 0.6699456 4294901760
29.226444 -6.7860165 0.11756895 4294901760
29.453257 -6.8506274 0.75020355 4294901760
29.467365 -6.8122716 0.74743372 4294901760
29.205154 -6.7663283 0.15478426 4294901760
29.192661 -6.7752171 0.1805604 4294901760
29.504604 -6.8208895 0.81516004 4294901760
29.783892 -6.9606977 -0.43017414 4294901760
29.19838 -6.7500243 0.19778275 4294901760
29.202599 -6.7981644 0.19789061 4294901760
29.211445 -6.8267779 0.18075886 4294901760
29.237217 -6.7767153 0.82785398 4294901760
29.431778 -6.8664317 0.83666724 4294901760
29.809206 -6.9425335 -0.38940045 4294901760
29.691475 -6.9630771 -0.38515058 4294901760
29.163641 -6.7655311 0.24057949 4294901760
29.44157 -6.7973905 0.8741501 4294901760
29.110115 -6.7295985 -0.3061789 4294901760
29.104004 -6.7781272 -0.30336466 4294901760
29.148899 -6.7591658 0.32069814 4294901760
29.084196 -6.7324047 -0.26304936 4294901760
29.147135 -6.7646403 0.36082134 4294901760
29.076622 -6.7218475 -0.23152554 4294901760
29.076035 -6.7686706 -0.22873713 4294901760
29.123028 -6.7561002 0.39200348 4294901760
29.053631 -6.7106638 -0.21992414 4294901760
29.051764 -6.7630148 -0.21713427 4294901760
29.057934 -6.8026075 -0.21437508 4294901760
29.09137 -6.7370033 0.40296412 4294901760
29.946915 -6.9232469 -0.40863517 4294901760
29.091352 -6.7458076 0.22313085 4294901760
29.094151 -6.7582045 0.14592986 4294901760
29.105759 -6.6816168 -0.30889535 4294901760
29.081131 -6.6788898 -0.26578504 4294901760
29.451273 -6.7431998 -0.2461199 4294901760
29.262978 -6.7384033 -0.18144338 4294901760
29.266842 -6.7009292 -0.086517565 4294901760
29.278297 -6.7183142 -0.054903235 4294901760
29.183523 -6.7289205 -0.026105633 4294901760
29.191582 -6.7160578 0.031273376 4294901760
29.217991 -6.7339282 0.11460695 4294901760
29.210644 -6.720448 0.15188462 4294901760
29.198166 -6.7293544 0.17765741 4294901760
29.164265 -6.7185917 0.23762667 4294901760
29.143974 -6.713912 0.32052845 4294901760
29.138027 -6.7154799 0.35770422 4294901760
29.332905 -6.736773 0.38321474 4294901760
29.300444 -6.7174926 0.44897151 4294901760
29.492819 -6.7408309 0.57950377 4294901760
29.315269 -6.6854377 0.59888983 4294901760
29.340977 -6.7238369 0.66303849 4294901760
29.413805 -6.7553716 0.74578869 4294901760
29.507832 -6.8097277 0.79195559 4294901760
29.412092 -6.7549782 0.81227124 4294901760
29.42144 -6.751194 0.87326437 4294901760
48.050129 -11.025345 1.5654709 4294901760
94.359055 -21.534069 3.221154 4294901760
48.030468 -11.025675 1.687762 4294901760
94.21373 -21.491394 3.6680074 4294901760
94.230827 -21.447792 4.1136045 4294901760
47.940434 -11.038849 2.2939146 4294901760
47.965279 -11.024641 2.4271309 4294901760
94.17321 -21.529633 5.2096052 4294901760
94.146866 -21.51354 5.6814489 4294901760
29.451809 -6.6958365 -0.24893709 4294901760
29.402569 -6.7765121 -0.24581695 4294901760
29.309124 -6.6840343 0.37986898 4294901760
29.258003 -6.6930051 -0.18423615 4294901760
29.294853 -6.6748738 0.44586077 4294901760
29.217052 -6.6718493 -0.095002376 4294901760
29.222054 -6.7171812 -0.092169315 4294901760
29.273945 -6.6701045 -0.054884542 4294901760
29.320337 -6.7545829 0.57912707 4294901760
29.174957 -6.676929 -0.028966505 4294901760
29.169044 -6.6579356 -0.0175 4294901760
29.169186 -6.7020755 -0.014633373 4294901760
29.270861 -6.6989002 0.61244959 4294901760
29.162222 -6.6651931 0.028342996 4294901760
29.214317 -6.6830015 0.11167037 4294901760
29.206312 -6.6723371 0.14893031 4294901760
29.470257 -6.7059727 0.78456122 4294901760
29.468954 -6.7561655 0.78772253 4294901760
29.189442 -6.6331863 0.17459477 4294901760
29.204239 -6.6806936 0.17475536 4294901760
29.398775 -6.7015386 0.80869538 4294901760
29.185507 -6.6499333 0.19179703 4294901760
29.194103 -6.7019181 0.19480595 4294901760
29.325516 -6.7055097 0.82694554 4294901760
29.368771 -6.7627892 0.82849038 4294901760
30.0655 -6.8991342 -0.39820883 4294901760
29.164814 -6.6716657 0.23467578 4294901760
29.397736 -6.6983395 0.86934316 4294901760
29.104315 -6.6431451 -0.30879852 4294901760
29.125669 -6.6597662 0.31732741 4294901760
29.07542 -6.6365433 -0.26851782 4294901760
29.118414 -6.6669106 0.35732746 4294901760
48.036007 -11.031793 1.6359887 4294901760
29.072079 -6.6299205 -0.23420419 4294901760
29.067387 -6.6727991 -0.23424014 4294901760
29.11022 -6.65623 0.3858034 4294901760
29.095707 -6.6969123 0.38859543 4294901760
29.055832 -6.6115742 -0.22264402 4294901760
29.065149 -6.660563 -0.22278015 4294901760
29.068115 -6.637804 0.39661834 4294901760
29.08581 -6.6946316 0.39989406 4294901760
48.014572 -11.002653 1.7059494 4294901760
48.001278 -11.081933 1.7108448 4294901760
30.083826 -6.8639202 -0.39833152 4294901760
29.069344 -6.6410141 0.21990816 4294901760
29.339935 -6.7295141 0.84768969 4294901760
29.081316 -6.6584082 0.13716279 4294901760
29.120611 -6.5940661 -0.30884695 4294901760
29.511198 -6.6142869 -0.25503734 4294901760
29.505276 -6.6634355 -0.25217944 4294901760
29.258469 -6.6459413 -0.18705431 4294901760
29.264128 -6.6000814 -0.092206709 4294901760
29.265266 -6.6180158 -0.057733428 4294901760
29.171173 -6.626092 -0.031825941 4294901760
29.138287 -6.6127443 0.025427479 4294901760
29.214798 -6.6360111 0.10875774 4294901760
29.192768 -6.6192417 0.1487913 4294901760
29.190458 -6.5834494 0.17453055 4294901760
29.160152 -6.5795422 0.2316017 4294901760
29.111504 -6.6095924 0.31418774 4294901760
29.115286 -6.6133842 0.3542794 4294901760
29.304676 -6.6357884 0.38254842 4294901760
29.290474 -6.6266708 0.44275287 4294901760
29.48304 -6.6940341 0.576213 4294901760
29.213417 -6.6151028 0.59366161 4294901760
29.268322 -6.6157603 0.65514117 4294901760
29.455568 -6.6581292 0.78100491 4294901760
29.365078 -6.6021852 0.80142182 4294901760
29.379938 -6.5966606 0.86239779 4294901760
29.299595 -6.5903959 0.37947211 4294901760
29.244892 -6.5927949 -0.18404153 4294901760
29.259205 -6.5518641 -0.18694118 4294901760
29.290262 -6.5823998 0.43972412 4294901760
29.217226 -6.5806708 -0.10068768 4294901760
29.207743 -6.6226401 -0.097819135 4294901760
29.264368 -6.5765748 -0.057720006 4294901760
29.170286 -6.5847678 -0.03182115 4294901760
29.180351 -6.5400591 -0.034685377 4294901760
29.160698 -6.5591216 -0.020362793 4294901760
29.160355 -6.6060114 -0.02036375 4294901760
29.202991 -6.5921578 0.60482514 4294901760
29.139549 -6.5162497 0.022538805 4294901760
29.134392 -6.5619946 0.025405908 4294901760
29.200554 -6.5857286 0.10865228 4294901760
29.225271 -6.5442576 0.10584705 4294901760
29.188269 -6.5712042 0.14584225 4294901760
29.432243 -6.6024947 0.78007883 4294901760
29.176147 -6.533246 0.17150627 4294901760
29.335979 -6.6399302 0.8037582 4294901760
29.168022 -6.5460963 0.18865387 4294901760
29.181044 -6.6018882 0.19169205 4294901760
29.335209 -6.6633902 0.8240642 4294901760
29.16173 -6.527081 0.22865608 4294901760
29.14642 -6.617528 0.23155999 4294901760
29.368429 -6.6472826 0.86528188 4294901760
29.111155 -6.5450373 -0.31151116 4294901760
29.121294 -6.5209508 0.31121823 4294901760
29.114843 -6.5722394 0.31413215 4294901760
29.07674 -6.5402174 -0.27120554 4294901760
29.075161 -6.5925479 -0.27128991 4294901760
29.10924 -6.5270333 0.34825319 4294901760
29.104664 -6.5699391 0.35117236 4294901760
29.073984 -6.5308204 -0.23976855 4294901760
29.067566 -6.5820422 -0.2369509 4294901760
29.100964 -6.5163937 0.37955007 4294901760
29.10128 -6.5603867 0.38254058 4294901760
29.100933 -6.6071897 0.38267481 4294901760
29.056427 -6.5181022 -0.22821222 4294901760
29.051291 -6.5637274 -0.22539456 4294901760
29.074379 -6.5426116 0.39355543 4294901760
29.078934 -6.5904756 0.39376253 4294901760
29.090254 -6.5491152 0.21419619 4294901760
29.327673 -6.6262369 0.84380335 4294901760
29.075991 -6.569314 0.1313208 4294901760
29.248331 -6.4347835 -0.31832364 4294901760
29.829079 -6.5896463 -0.26621306 4294901760
29.064428 -6.4818974 -0.24247308 4294901760
29.235041 -6.4994125 -0.1896117 4294901760
29.268959 -6.5099034 -0.097913094 4294901760
29.246391 -6.5195794 -0.060549717 4294901760
29.175707 -6.4920735 -0.037539538 4294901760
29.145988 -6.4180984 0.019660195 4294901760
29.215765 -6.4951229 0.10289799 4294901760
29.203819 -6.5247631 0.14586957 4294901760
29.195913 -6.4907045 0.16870488 4294901760
29.171108 -6.4851847 0.22579384 4294901760
29.121532 -6.4741521 0.30825064 4294901760
29.339451 -6.4577971 0.3738496 4294901760
29.102444 -6.4640532 0.37656146 4294901760
29.295677 -6.4893527 0.43949544 4294901760
29.526169 -6.528595 0.52997029 4294901760
29.250309 -6.4528451 0.56497234 4294901760
29.394274 -6.5171227 0.59394294 4294901760
29.293703 -6.4800849 0.64928186 4294901760
29.450666 -6.5710859 0.7369917 4294901760
29.471684 -6.5639272 0.77798063 4294901760
29.424582 -6.5652599 0.80278307 4294901760
29.374741 -6.4596729 0.85561299 4294901760
29.672598 -6.6027541 -0.25625589 4294901760
29.329512 -6.5027494 0.3738496 4294901760
29.313957 -6.5493956 0.3766613 4294901760
29.230932 -6.448566 -0.19239247 4294901760
29.290991 -6.441237 0.43639427 4294901760
29.28627 -6.5314236 0.4423694 4294901760
29.203861 -6.4337878 -0.10629099 4294901760
29.21349 -6.4828715 -0.1034843 4294901760
29.218781 -6.5281091 -0.10065987 4294901760
29.398386 -6.5505409 0.52779603 4294901760
29.24721 -6.4697895 -0.063404359 4294901760
29.181364 -6.4434819 -0.040398497 4294901760
29.320681 -6.4566059 0.58933973 4294901760
29.160658 -6.4213319 -0.028939661 4294901760
29.169678 -6.4731393 -0.0260855 4294901760
29.170099 -6.5172215 -0.023225583 4294901760
29.126345 -6.4605856 0.022505248 4294901760
29.200676 -6.4477506 0.09993311 4294901760
29.19442 -6.4287739 0.14284241 4294901760
29.208307 -6.4817204 0.14297663 4294901760
29.438494 -6.5062323 0.77390665 4294901760
29.185705 -6.4444418 0.16571751 4294901760
29.312248 -6.4488597 0.79623306 4294901760
29.186749 -6.4622664 0.18579067 4294901760
29.172527 -6.5030971 0.18861936 4294901760
29.230602 -6.4455571 0.81126469 4294901760
29.137106 -6.4307728 0.22256923 4294901760
29.321424 -6.492116 0.85718238 4294901760
29.353994 -6.5524459 0.8613745 4294901760
29.179262 -6.4694033 -0.31486276 4294901760
29.140652 -6.5047746 -0.31456652 4294901760
29.116198 -6.4290781 0.30523077 4294901760
29.077185 -6.4000115 -0.27665576 4294901760
29.07712 -6.446734 -0.27388945 4294901760
29.076979 -6.4934707 -0.27112117 4294901760
29.110867 -6.4278994 0.34515238 4294901760
29.105818 -6.4735808 0.34806913 4294901760
29.038984 -6.3886786 -0.2449844 4294901760
29.058458 -6.439672 -0.2423609 4294901760
29.097679 -6.4162169 0.37636301 4294901760
29.046362 -6.4253144 -0.23085156 4294901760
29.052353 -6.4675179 -0.23095798 4294901760
29.07073 -6.3985896 0.38451919 4294901760
29.065105 -6.4469881 0.3874383 4294901760
29.074038 -6.498661 0.39056396 4294901760
29.093729 -6.4650402 0.21122371 4294901760
29.090523 -6.481873 0.12844078 4294901760
29.283148 -6.3454771 -0.32421288 4294901760
30.156872 -6.5652514 -0.27469239 4294901760
29.052504 -6.3741531 -0.2336649 4294901760
29.245068 -6.360683 -0.19522981 4294901760
29.270464 -6.4102702 -0.10646932 4294901760
29.232063 -6.4223943 -0.066232629 4294901760
29.180832 -6.3994083 -0.040390827 4294901760
29.141151 -6.3702221 0.016784463 4294901760
29.210531 -6.4029961 0.09993311 4294901760
29.199379 -6.3829637 0.13995281 4294901760
29.177729 -6.4104447 0.18279324 4294901760
29.156698 -6.3414431 0.22256923 4294901760
29.145586 -6.3419476 0.30248225 4294901760
29.339048 -6.4135265 0.36508983 4294901760
29.091003 -6.3767681 0.37616456 4294901760
29.286228 -6.3931508 0.43329597 4294901760
29.38932 -6.3596663 0.51824987 4294901760
29.270077 -6.3631916 0.55923432 4294901760
29.236893 -6.4175863 0.59898716 4294901760
29.402031 -6.4066558 0.64840126 4294901760
29.417912 -6.4603143 0.77311862 4294901760
29.396147 -6.4378233 0.81281495 4294901760
29.545918 -6.4024763 0.85721946 4294901760
30.087557 -6.60148 -0.27124152 4294901760
29.344004 -6.3675065 0.36215013 4294901760
29.235292 -6.4054942 -0.19236323 4294901760
29.256914 -6.3397865 0.4326939 4294901760
29.203909 -6.3400044 -0.10909385 4294901760
29.199034 -6.3858185 -0.10910919 4294901760
29.272026 -6.3812361 0.51915789 4294901760
29.243237 -6.4189801 0.521667 4294901760
29.207039 -6.3260388 -0.069021598 4294901760
29.22234 -6.3733258 -0.066200033 4294901760
29.175957 -6.35149 -0.043239236 4294901760
29.257362 -6.3486867 0.58475292 4294901760
29.146017 -6.3245006 -0.031782798 4294901760
29.150938 -6.3723636 -0.028931992 4294901760
29.193035 -6.3610692 0.59499186 4294901760
29.131344 -6.3213134 0.016761454 4294901760
29.236488 -6.4145613 0.64772499 4294901760
29.21117 -6.353303 0.097030558 4294901760
29.183504 -6.3384972 0.13696063 4294901760
29.404081 -6.3599157 0.76931787 4294901760
29.409481 -6.4053302 0.77259332 4294901760
29.177261 -6.3429933 0.16267358 4294901760
29.162596 -6.3866229 0.16550276 4294901760
29.153299 -6.3114638 0.17963427 4294901760
29.166788 -6.3670506 0.17979965 4294901760
29.147549 -6.3833241 0.22256923 4294901760
29.230059 -6.3779435 -0.32089004 4294901760
29.125412 -6.3872423 0.30523077 4294901760
29.066738 -6.3072796 -0.2792457 4294901760
29.0772 -6.3533096 -0.27656949 4294901760
29.115221 -6.3382545 0.34211579 4294901760
29.110348 -6.383935 0.3421762 4294901760
29.058989 -6.2968535 -0.25352794 4294901760
29.049316 -6.3413801 -0.25068012 4294901760
29.086132 -6.3289971 0.37311503 4294901760
29.057343 -6.3285565 -0.23647729 4294901760
29.074963 -6.3090663 0.38431644 4294901760
29.059111 -6.3581023 0.38709795 4294901760
29.065853 -6.3595791 0.20513588 4294901760
29.317352 -6.4440961 0.83374506 4294901760
29.071842 -6.38132 0.12253982 4294901760
29.463797 -6.2901745 -0.32877535 4294901760
30.171432 -6.4262934 -0.28047672 4294901760
29.096512 -6.1942019 -0.23939945 4294901760
29.259539 -6.2699699 -0.19806617 4294901760
29.264618 -6.2241664 -0.11206688 4294901760
29.203241 -6.2725239 -0.071856581 4294901760
29.149591 -6.2843595 -0.034636483 4294901760
29.132439 -6.2689776 0.013895788 4294901760
29.210514 -6.3092194 0.09412992 4294901760
29.188923 -6.2899213 0.13407487 4294901760
29.171965 -6.2248869 0.1739203 4294901760
29.157244 -6.2918563 0.21963176 4294901760
29.156515 -6.2916989 0.29962537 4294901760
29.348885 -6.3214855 0.35921133 4294901760
29.079758 -6.2634587 0.38139972 4294901760
29.280706 -6.3009162 0.43005097 4294901760
29.291515 -6.2915034 0.51628834 4294901760
29.403307 -6.2890277 0.58161014 4294901760
29.319994 -6.2946887 0.59437633 4294901760
29.422752 -6.2637253 0.64241731 4294901760
29.211506 -6.2860098 0.72102493 4294901760
29.466417 -6.3320613 0.76787055 4294901760
29.350494 -6.3130078 0.85114002 4294901760
29.245386 -6.3138275 -0.11206688 4294901760
30.054022 -6.4494262 -0.27659395 4294901760
29.942736 -6.467536 -0.27277398 4294901760
29.354259 -6.272646 0.35914853 4294901760
29.254433 -6.2219977 -0.20084023 4294901760
29.244999 -6.3137441 -0.19803597 4294901760
29.275713 -6.252912 0.42695937 4294901760
29.203657 -6.2462811 -0.11189287 4294901760
29.2136 -6.2952447 -0.10909385 4294901760
29.291405 -6.2445331 0.51324153 4294901760
29.202454 -6.2284751 -0.071838364 4294901760
29.175531 -6.2110415 -0.048927426 4294901760
29.165371 -6.2585363 -0.046070389 4294901760
29.175285 -6.3074522 -0.046089564 4294901760
29.20162 -6.3014421 0.55769277 4294901760
29.379517 -6.3280902 0.58418959 4294901760
29.154308 -6.2386355 -0.034633607 4294901760
29.230698 -6.2345057 0.5894717 4294901760
29.261995 -6.3262177 0.59622276 4294901760
29.136534 -6.2260733 0.011036833 4294901760
29.20039 -6.2134156 0.094017744 4294901760
29.206091 -6.2585049 0.094073832 4294901760
29.18387 -6.2420444 0.13399865 4294901760
29.300795 -6.2465372 0.76030755 4294901760
29.18255 -6.2476082 0.15686612 4294901760
29.171711 -6.2979054 0.15972455 4294901760
29.162964 -6.2667856 0.17677729 4294901760
29.166651 -6.2003889 0.21669619 4294901760
29.161995 -6.2461247 0.2167355 4294901760
29.390602 -6.3216434 -0.32522911 4294901760
29.155758 -6.2477078 0.29951894 4294901760
29.170197 -6.2040634 0.29957217 4294901760
29.077341 -6.2104988 -0.28200626 4294901760
29.072069 -6.2588873 -0.28205037 4294901760
29.124588 -6.2001848 0.33617011 4294901760
29.104635 -6.2454896 0.33890229 4294901760
29.105364 -6.2894025 0.34187421 4294901760
29.069559 -6.2001014 -0.25629622 4294901760
29.068613 -6.252316 -0.25352794 4294901760
29.101017 -6.1893353 0.3615196 4294901760
29.096378 -6.2349706 0.36158335 4294901760
29.086744 -6.2795429 0.36443344 4294901760
29.077221 -6.2366877 -0.23647729 4294901760
29.067619 -6.2812381 -0.23647729 4294901760
29.080185 -6.2140198 0.37841734 4294901760
29.0804 -6.2694273 0.19655015 4294901760
29.091513 -6.1960492 0.11674623 4294901760
29.072956 -6.2823925 0.11959509 4294901760
29.596052 -6.2206898 -0.33285171 4294901760
30.197153 -6.3773704 -0.28060472 4294901760
29.17897 -6.1183457 -0.24273482 4294901760
29.262993 -6.1330557 -0.20364256 4294901760
29.279848 -6.12781 -0.11491624 4294901760
29.20767 -6.179883 -0.074688688 4294901760
29.160139 -6.1873264 -0.037485849 4294901760
29.155832 -6.1834936 0.01104642 4294901760
29.213846 -6.1256661 0.091140114 4294901760
29.19891 -6.1955614 0.13116513 4294901760
29.182665 -6.1745868 0.1739203 4294901760
29.171259 -6.1546574 0.21380137 4294901760
29.155251 -6.1541939 0.29645211 4294901760
29.357798 -6.2322483 0.35621119 4294901760
29.089684 -6.1694498 0.37841734 4294901760
29.289906 -6.1621361 0.42401826 4294901760
29.296387 -6.1488504 0.51010835 4294901760
29.450878 -6.16364 0.55318999 4294901760
29.235336 -6.1886687 0.58937007 4294901760
29.323889 -6.1516967 0.63691312 4294901760
29.339682 -6.2078433 0.76108694 4294901760
30.201981 -6.3300548 -0.28351775 4294901760
29.333359 -6.1302228 0.3527801 4294901760
29.333113 -6.180038 0.35290378 4294901760
29.254143 -6.1750898 -0.20364256 4294901760
29.280378 -6.2070045 0.42688507 4294901760
29.198404 -6.1019902 -0.11749619 4294901760
29.21348 -6.151885 -0.11472066 4294901760
29.208908 -6.1976852 -0.11187705 4294901760
29.280842 -6.1983113 0.51002014 4294901760
29.207323 -6.1330595 -0.077527985 4294901760
29.215155 -6.1668515 0.55168408 4294901760
29.195032 -6.1187978 -0.051784463 4294901760
29.179543 -6.1680856 -0.048922155 4294901760
29.250954 -6.1159072 0.57505894 4294901760
29.286152 -6.1672044 0.57595193 4294901760
29.339573 -6.2283759 0.58011466 4294901760
29.160398 -6.1377783 -0.040333301 4294901760
29.241138 -6.1372428 0.58640665 4294901760
29.151787 -6.1301322 0.0081788348 4294901760
29.200705 -6.1637983 0.091121897 4294901760
29.196827 -6.1571364 0.13111527 4294901760
29.206247 -6.1123905 0.1282573 4294901760
29.31011 -6.154665 0.75717926 4294901760
29.190262 -6.1148782 0.15389265 4294901760
29.18574 -6.1606359 0.15392141 4294901760
29.18232 -6.2008014 0.15680765 4294901760
29.187227 -6.1288352 0.1710317 4294901760
29.175793 -6.1089272 0.2109075 4294901760
29.543055 -6.2538748 -0.33238578 4294901760
29.160378 -6.1056962 0.29354584 4294901760
29.080946 -6.1210375 -0.28756675 4294901760
29.086218 -6.1687145 -0.28485408 4294901760
29.123348 -6.1095834 0.33308223 4294901760
29.119982 -6.1496549 0.3359918 4294901760
29.073742 -6.1078882 -0.2590223 4294901760
29.064362 -6.1524386 -0.25617686 4294901760
29.10581 -6.0942588 0.35848016 4294901760
29.106213 -6.1409197 0.35860673 4294901760
29.131617 -6.1492 -0.239584 4294901760
29.094259 -6.1238427 0.37550303 4294901760
29.108595 -6.0890222 0.18793228 4294901760
29.094648 -6.1792407 0.19081609 4294901760
29.101233 -6.1020288 0.10530859 4294901760
29.809814 -6.1256676 -0.34064877 4294901760
29.674047 -6.1896291 -0.33647987 4294901760
30.294682 -6.2526274 -0.28712776 4294901760
29.345634 -6.0536261 -0.24672642 4294901760
29.273516 -6.0825953 -0.20650627 4294901760
29.298502 -6.0380421 -0.11778141 4294901760
29.211803 -6.0872736 -0.077517919 4294901760
29.179565 -6.0951324 -0.040340971 4294901760
29.15568 -6.0872231 0.0053217965 4294901760
29.219486 -6.0742769 0.088263437 4294901760
29.221664 -6.0630512 0.12542331 4294901760
29.192299 -6.0802879 0.16814402 4294901760
29.174759 -6.0649691 0.21083081 4294901760
29.153944 -6.0140419 0.29043347 4294901760
29.169128 -6.0637975 0.29354584 4294901760
29.342272 -6.0382819 0.34978715 4294901760
29.104202 -6.0764642 0.37550303 4294901760
29.293886 -6.1190367 0.42107815 4294901760
29.309736 -6.0608482 0.50428683 4294901760
29.396139 -6.1081004 0.54908043 4294901760
29.24585 -6.085608 0.63208479 4294901760
29.396442 -6.0347681 0.75298363 4294901760
29.464222 -6.101656 0.75792092 4294901760
29.60644 -6.1311369 0.92686808 4294901760
29.615292 -6.1862421 0.93039089 4294901760
30.280184 -6.2980318 -0.28412172 4294901760
29.333557 -6.0804296 0.34978715 4294901760
29.293449 -6.0721073 0.42093146 4294901760
29.308245 -6.0254207 0.41813895 4294901760
29.216978 -6.0124717 -0.12035321 4294901760
29.207729 -6.0572391 -0.11749619 4294901760
29.295462 -6.1047244 0.50706577 4294901760
29.202095 -6.0356503 -0.080333725 4294901760
29.376099 -6.056983 0.54851389 4294901760
29.198397 -6.0290532 -0.054622807 4294901760
29.194008 -6.0748096 -0.054629035 4294901760
29.319231 -6.033536 0.57031715 4294901760
29.290308 -6.0743818 0.57278925 4294901760
29.19323 -6.0046654 -0.043191779 4294901760
29.188881 -6.0504098 -0.043196093 4294901760
29.259888 -6.0476074 0.58354497 4294901760
29.245682 -6.0914178 0.5834443 4294901760
29.159508 -6.0443149 0.0053179613 4294901760
29.169321 -5.9968309 0.0024657163 4294901760
29.191572 -6.0276427 0.62781537 4294901760
29.219564 -6.0246749 0.085370466 4294901760
29.210188 -6.0198226 0.12532744 4294901760
29.351051 -6.0371609 0.71164691 4294901760
29.303665 -6.1122942 0.756791 4294901760
29.204597 -6.0215859 0.14815181 4294901760
29.195892 -6.0635324 0.15100785 4294901760
29.191801 -6.0335202 0.1680817 4294901760
29.322159 -6.0429225 0.79419839 4294901760
29.170511 -6.0116377 0.20786311 4294901760
29.762991 -6.1546712 -0.34022695 4294901760
29.590166 -6.0863943 0.92608684 4294901760
29.104456 -5.9834814 -0.29036757 4294901760
29.095243 -6.0280738 -0.29036757 4294901760
29.090883 -6.0736809 -0.28756675 4294901760
29.132772 -6.0154891 0.33011514 4294901760
29.122931 -6.0629139 0.33011514 4294901760
29.083107 -6.013937 -0.26178625 4294901760
29.078161 -6.0623026 -0.26182699 4294901760
29.118969 -6.0068197 0.35272148 4294901760
29.11516 -6.0496573 0.35563198 4294901760
29.277319 -6.0395188 -0.20933785 4294901760
29.257994 -6.0822902 -0.2461205 4294901760
29.093397 -5.9812059 0.36941653 4294901760
29.092787 -6.0333772 0.37239265 4294901760
29.102098 -5.9975243 0.18491136 4294901760
29.105139 -6.0097766 0.10239886 4294901760
29.843639 -6.0849714 -0.34382969 4294901760
29.100018 -5.9302945 -0.29307538 4294901760
30.328985 -6.1598268 -0.29022291 4294901760
29.462614 -5.9807544 -0.25036332 4294901760
29.310839 -5.952836 -0.12062933 4294901760
29.229124 -5.9537168 -0.083211847 4294901760
29.183388 -5.953125 -0.00038365231 4294901760
29.252621 -5.9380832 0.082563296 4294901760
29.233671 -5.9808946 0.085387722 4294901760
29.22238 -5.9348526 0.14529577 4294901760
29.198071 -5.9269986 0.20508525 4294901760
29.157019 -5.9244728 0.28742847 4294901760
29.156025 -5.9271784 0.32732394 4294901760
29.345455 -5.9481678 0.34386736 4294901760
29.326632 -5.935576 0.41527313 4294901760
29.341698 -5.929852 0.50150692 4294901760
29.323895 -6.0169325 0.50437403 4294901760
29.430063 -6.0181785 0.54648662 4294901760
29.213657 -5.8952122 0.62199813 4294901760
29.331848 -6.0156384 0.63074023 4294901760
29.48275 -5.967206 0.71156597 4294901760
29.399618 -5.9943466 0.75285518 4294901760
29.404844 -6.0130167 0.79623306 4294901760
29.415794 -5.9536405 0.83647776 4294901760
29.604553 -5.9918833 0.9201445 4294901760
30.308514 -6.2100964 -0.2901347 4294901760
29.331938 -5.9893122 0.34667435 4294901760
29.277327 -5.9898353 -0.20927361 4294901760
29.316919 -5.9833174 0.41527313 4294901760
29.229805 -5.9247026 -0.1231925 4294901760
29.226166 -5.9676924 -0.12035321 4294901760
29.333139 -5.9719992 0.50150692 4294901760
29.238218 -5.9089179 -0.086068876 4294901760
29.215643 -5.9946976 -0.080344275 4294901760
29.365202 -5.9609599 0.54507738 4294901760
29.216749 -5.9395361 -0.060334004 4294901760
29.208181 -5.981504 -0.057478406 4294901760
29.292994 -5.9375234 0.56657004 4294901760
29.249516 -5.9753833 0.56874496 4294901760
29.206041 -5.9169683 -0.048895787 4294901760
29.192036 -5.9607162 -0.046036832 4294901760
29.311451 -5.9208112 0.57832003 4294901760
29.287584 -5.9627151 0.58088362 4294901760
29.269186 -6.0027738 0.58068323 4294901760
29.182684 -5.9064116 -0.00038940474 4294901760
29.2682 -5.9529257 0.62625462 4294901760
29.232862 -5.9340687 0.1224944 4294901760
29.225447 -5.9704609 0.1224944 4294901760
29.361002 -5.9337573 0.74870157 4294901760
29.2138 -5.9768252 0.14815181 4294901760
29.224758 -5.8974547 0.16240177 4294901760
29.21566 -5.9422283 0.16525732 4294901760
29.202185 -5.9831896 0.16522664 4294901760
29.184599 -5.9679322 0.20790097 4294901760
29.333746 -5.9809017 0.83434248 4294901760
29.84804 -6.038238 -0.34377649 4294901760
29.14904 -5.9635625 0.28742847 4294901760
29.570179 -6.035058 0.92225868 4294901760
29.103025 -5.8902726 -0.29587337 4294901760
29.146896 -5.9718499 0.32732394 4294901760
29.105528 -5.8791723 -0.26743352 4294901760
29.0867 -5.9217749 -0.26450706 4294901760
29.087378 -5.9683523 -0.26458952 4294901760
29.109032 -5.9060025 0.34950274 4294901760
29.119495 -5.9546056 0.35259685 4294901760
29.28532 -5.9505696 -0.21213585 4294901760
29.404423 -6.0158648 -0.24997982 4294901760
29.112213 -5.8892312 0.36657172 4294901760
29.097073 -5.9384022 0.36935133 4294901760
29.126413 -5.9037237 0.18209945 4294901760
29.127214 -5.9271259 0.099572517 4294901760
30.142128 -5.995677 -0.34969983 4294901760
29.136198 -5.8011875 -0.29885826 4294901760
30.360735 -6.0271125 -0.29323179 4294901760
29.305349 -5.90205 -0.21220104 4294901760
29.320263 -5.8553934 -0.12632227 4294901760
29.24725 -5.8641062 -0.086068876 4294901760
29.239731 -5.8509455 -0.06319727 4294901760
29.205017 -5.8207207 -0.0089432634 4294901760
29.270712 -5.848403 0.079704359 4294901760
29.252077 -5.8388495 0.11678039 4294901760
29.254318 -5.8014288 0.13961005 4294901760
29.230539 -5.7908888 0.19941446 4294901760
29.189489 -5.7885594 0.28177941 4294901760
29.183056 -5.7930923 0.32162464 4294901760
29.3636 -5.8582082 0.34099948 4294901760
29.349087 -5.8494639 0.41247916 4294901760
29.360409 -5.8371038 0.4957726 4294901760
29.425634 -5.838366 0.5399884 4294901760
29.486286 -5.8386717 0.56413674 4294901760
29.432861 -5.8954949 0.62661505 4294901760
29.476545 -5.8719573 0.70520216 4294901760
29.510935 -5.8729382 0.74927497 4294901760
29.390945 -5.8578153 0.77204907 4294901760
29.467829 -5.8731542 0.83171839 4294901760
29.645691 -5.9145446 0.91802555 4294901760
30.352617 -6.0678177 -0.29323179 4294901760
30.34269 -6.1172314 -0.29323179 4294901760
29.355112 -5.9003801 0.34386736 4294901760
29.294741 -5.8532095 -0.21493195 4294901760
29.308569 -5.8092804 -0.2178268 4294901760
29.334049 -5.8990655 0.41240728 4294901760
29.277815 -5.83816 -0.12615833 4294901760
29.249783 -5.8762727 -0.12608546 4294901760
29.350809 -5.8848915 0.49863976 4294901760
29.251858 -5.8155012 -0.088913925 4294901760
29.358383 -5.8688631 0.53887248 4294901760
29.244324 -5.8023558 -0.063189596 4294901760
29.226955 -5.8891587 -0.060334004 4294901760
29.370518 -5.8566642 0.56487501 4294901760
29.414843 -5.9153299 0.56594539 4294901760
29.219709 -5.8236518 -0.051744197 4294901760
29.210745 -5.868422 -0.048890516 4294901760
29.363855 -5.83779 0.57615042 4294901760
29.319992 -5.8787065 0.57545584 4294901760
29.191713 -5.8616858 -0.0089447014 4294901760
29.231228 -5.8084855 0.61343473 4294901760
29.270958 -5.7959905 0.07681378 4294901760
29.256804 -5.8922629 0.079688057 4294901760
29.354158 -5.8972631 0.70530277 4294901760
29.243073 -5.883666 0.1196374 4294901760
29.490883 -5.9218206 0.75190097 4294901760
29.24593 -5.8434467 0.14246659 4294901760
29.231451 -5.8900652 0.14529577 4294901760
29.342724 -5.8949633 0.7709946 4294901760
29.23727 -5.8096871 0.15951651 4294901760
29.230005 -5.8460855 0.15951651 4294901760
29.358839 -5.8631053 0.78846335 4294901760
29.056314 -5.8460522 0.78322095 4294901760
29.221601 -5.8356705 0.20226856 4294901760
29.20715 -5.8822527 0.20223165 4294901760
29.415173 -5.9066029 0.83331943 4294901760
29.887798 -5.9926686 -0.34701541 4294901760
29.174528 -5.8378844 0.28457874 4294901760
29.166103 -5.8797913 0.28457874 4294901760
29.60277 -5.9502106 0.91983396 4294901760
29.122952 -5.8420606 -0.29596636 4294901760
29.168673 -5.8396177 0.3215676 4294901760
29.16568 -5.8797059 0.32447428 4294901760
29.114706 -5.7824092 -0.26769313 4294901760
29.115606 -5.8289828 -0.2702775 4294901760
29.151236 -5.7722597 0.34399569 4294901760
29.136297 -5.8215189 0.34678063 4294901760
29.122396 -5.8651657 0.34956458 4294901760
29.481092 -5.8376422 -0.25354365 4294901760
29.613722 -5.9140587 -0.25718358 4294901760
29.486435 -5.9385576 -0.25335929 4294901760
29.129623 -5.8027773 0.36372688 4294901760
29.126114 -5.8455977 0.36663643 4294901760
29.149311 -5.8154125 0.17928658 4294901760
29.299971 -5.8746877 0.80415511 4294901760
29.136026 -5.833075 0.096686259 4294901760
29.362415 -5.9047761 0.72025621 4294901760
29.835964 -5.8426723 -0.34656838 4294901760
29.201279 -5.6776109 -0.29958332 4294901760
30.365473 -5.9253311 -0.2960614 4294901760
29.335501 -5.7241497 -0.22075664 4294901760
29.343536 -5.7636576 -0.12920471 4294901760
29.275009 -5.723978 -0.091782942 4294901760
29.267435 -5.7108545 -0.068909422 4294901760
29.24622 -5.6892653 -0.014646316 4294901760
29.313606 -5.7606888 0.07692451 4294901760
29.269867 -5.7491722 0.11392337 4294901760
29.276899 -5.7127037 0.13677943 4294901760
29.253641 -5.6994348 0.19659632 4294901760
29.227316 -5.7001123 0.27912861 4294901760
29.201271 -5.7008343 0.31877497 4294901760
29.395189 -5.7241182 0.33819109 4294901760
29.38995 -5.7201753 0.40695935 4294901760
29.431089 -5.7633076 0.49384394 4294901760
29.425909 -5.7857084 0.53693002 4294901760
29.446711 -5.7810149 0.56316847 4294901760
29.42503 -5.7562666 0.61437654 4294901760
29.416311 -5.8160176 0.70351785 4294901760
29.519077 -5.7805552 0.74613893 4294901760
29.51683 -5.7889223 0.76918703 4294901760
29.46652 -5.7292347 0.79924381 4294901760
29.879263 -5.8155079 0.92161208 4294901760
30.346537 -5.9699264 -0.29597127 4294901760
29.375977 -5.7700357 0.34093958 4294901760
29.37311 -5.8103909 0.34099948 4294901760
29.322351 -5.7653265 -0.21786036 4294901760
29.376787 -5.7614288 0.4068884 4294901760
29.358067 -5.8044901 0.40961283 4294901760
29.32453 -5.7045145 -0.13195387 4294901760
29.286306 -5.7436652 -0.13183881 4294901760
29.261648 -5.7912321 -0.12892427 4294901760
29.368773 -5.7949176 0.4957726 4294901760
29.265095 -5.7744398 -0.088925913 4294901760
29.38949 -5.7376175 0.53609741 4294901760
29.252634 -5.7603359 -0.066045195 4294901760
29.317665 -5.7119207 0.55759645 4294901760
29.270733 -5.6940384 -0.057485115 4294901760
29.247797 -5.7331963 -0.054610342 4294901760
29.234068 -5.7770395 -0.051749948 4294901760
29.372421 -5.7430439 0.57308543 4294901760
29.313978 -5.781178 0.57209802 4294901760
29.232552 -5.7331119 -0.014646796 4294901760
29.218819 -5.7769308 -0.01179455 4294901760
29.31802 -5.7819762 0.61512965 4294901760
29.273344 -5.7061872 0.073909774 4294901760
29.380661 -5.7125239 0.69932765 4294901760
29.377321 -5.7556896 0.69944751 4294901760
29.273745 -5.7033553 0.11390132 4294901760
29.261555 -5.791214 0.11678039 4294901760
29.509617 -5.8286104 0.74613893 4294901760
29.263184 -5.7565923 0.13961005 4294901760
29.510406 -5.7436438 0.76879448 4294901760
29.434294 -5.8195767 0.77009797 4294901760
29.260427 -5.7182145 0.15669067 4294901760
29.255974 -5.7668161 0.15671992 4294901760
29.448885 -5.7433686 0.78446686 4294901760
29.459581 -5.7923355 0.78787738 4294901760
29.383698 -5.815412 0.78599846 4294901760
29.244295 -5.7470536 0.1994509 4294901760
29.393158 -5.7617192 0.82616299 4294901760
29.418526 -5.8135285 0.83002168 4294901760
29.632484 -5.8411083 -0.34150887 4294901760
29.212502 -5.7495179 0.28193039 4294901760
29.782038 -5.8439512 0.91883409 4294901760
29.644924 -5.8671651 0.91771591 4294901760
29.18763 -5.7213898 -0.29953587 4294901760
29.15052 -5.7547102 -0.29640526 4294901760
29.191938 -5.7483716 0.31877497 4294901760
29.152435 -5.6941895 -0.27355179 4294901760
29.122969 -5.7405715 -0.27053618 4294901760
29.197741 -5.6914353 0.34151182 4294901760
29.179131 -5.7342343 0.34423921 4294901760
30.082258 -5.8640294 -0.26115686 4294901760
29.351519 -5.7710671 -0.25530815 4294901760
29.184992 -5.6773424 0.35841689 4294901760
29.153326 -5.7088594 0.36094582 4294901760
29.143982 -5.7563186 0.36094582 4294901760
29.170309 -5.7354012 0.17612535 4294901760
29.460835 -5.728128 0.82785398 4294901760
29.38658 -5.7984352 0.80321205 4294901760
29.163609 -5.7456889 0.093878619 4294901760
29.47728 -5.7371898 0.71898228 4294901760
29.327084 -5.8012767 0.71853256 4294901760
30.218119 -5.8154631 -0.35352427 4294901760
30.393221 -5.8341012 -0.30800867 4294901760
30.135372 -5.8264685 -0.26445481 4294901760
29.389437 -5.6295562 -0.22386096 4294901760
29.364891 -5.6802707 -0.13208808 4294901760
29.329422 -5.6005764 -0.097577535 4294901760
29.30883 -5.628653 -0.068952568 4294901760
29.28318 -5.6033664 -0.0175 4294901760
29.290182 -5.6192503 0.071053222 4294901760
29.41988 -5.632472 0.10873665 4294901760
29.299812 -5.673492 0.13685709 4294901760
29.319574 -5.6219835 0.19409649 4294901760
29.332535 -5.6302972 0.27716526 4294901760
29.535467 -5.657557 0.33103609 4294901760
29.433931 -5.681941 0.33854774 4294901760
29.481554 -5.6413646 0.40802351 4294901760
29.506451 -5.6373448 0.49181998 4294901760
29.389584 -5.6850519 0.53304529 4294901760
29.528225 -5.7030954 0.55866623 4294901760
29.593178 -5.6509938 0.6116634 4294901760
29.834028 -5.7118425 0.7041738 4294901760
29.859715 -5.704906 0.74844474 4294901760
29.694323 -5.6880169 0.77034765 4294901760
29.828213 -5.7018433 0.80586386 4294901760
30.323608 -5.8086801 0.92912447 4294901760
30.364632 -5.8768725 -0.30485842 4294901760
29.364969 -5.6773682 -0.22089279 4294901760
29.403597 -5.6760793 0.40703028 4294901760
29.356613 -5.6174326 -0.13487415 4294901760
29.337057 -5.6661358 -0.13483484 4294901760
29.483538 -5.6768818 0.49444121 4294901760
29.426315 -5.7097101 0.49071699 4294901760
29.311525 -5.6408162 -0.094691746 4294901760
29.283203 -5.6819134 -0.094639972 4294901760
29.348637 -5.6333909 0.53212494 4294901760
29.280533 -5.6697545 -0.066061497 4294901760
29.473059 -5.6455903 0.56029415 4294901760
29.308781 -5.6024508 -0.057511959 4294901760
29.289251 -5.6510735 -0.057498537 4294901760
29.456495 -5.624867 0.56852573 4294901760
29.428741 -5.6633968 0.56813461 4294901760
29.410151 -5.7065701 0.57080847 4294901760
29.254913 -5.6444411 -0.0175 4294901760
29.457336 -5.6689053 0.61181974 4294901760
29.325378 -5.6930199 0.60919535 4294901760
29.2668 -5.6612768 0.071008645 4294901760
29.62504 -5.7129836 0.7021898 4294901760
29.39592 -5.677516 0.11154094 4294901760
29.658894 -5.7165723 0.7464214 4294901760
29.63537 -5.7591529 0.74604177 4294901760
29.299213 -5.6238947 0.13394783 4294901760
29.568331 -5.707912 0.76721865 4294901760
29.234217 -5.6172123 0.15072502 4294901760
29.190105 -5.6609292 0.15337493 4294901760
29.54007 -5.6672397 0.78359181 4294901760
29.462566 -5.6991839 0.78460056 4294901760
29.310915 -5.6669064 0.19409649 4294901760
29.607073 -5.7095151 0.82891166 4294901760
30.209192 -5.8617702 -0.35057679 4294901760
29.239878 -5.6618743 0.27632591 4294901760
30.060535 -5.8000374 0.92408133 4294901760
29.223951 -5.5862188 -0.30533022 4294901760
29.211008 -5.6272559 -0.30243257 4294901760
29.290684 -5.6338916 0.31676656 4294901760
29.262375 -5.6749592 0.31654224 4294901760
29.175318 -5.6551595 -0.27368119 4294901760
29.293657 -5.6170092 0.33962134 4294901760
29.207012 -5.6438951 0.33866262 4294901760
29.199202 -5.6104774 -0.27665848 4294901760
30.017691 -5.7500215 -0.26633528 4294901760
29.311409 -5.6029539 0.35695067 4294901760
29.2782 -5.6431217 0.35949257 4294901760
29.262503 -5.6546292 0.17375973 4294901760
29.768051 -5.6932869 0.83036232 4294901760
29.215467 -5.6629496 0.091162533 4294901760
29.720089 -5.6929574 0.72172838 4294901760
29.480694 -5.6558371 0.58673859 4294901760
29.987436 -5.7174253 -0.35377055 4294901760
29.92021 -5.6452146 -0.30622727 4294901760
29.594234 -5.6218209 -0.26274964 4294901760
29.439878 -5.5515776 -0.226972 4294901760
29.422501 -5.5920844 -0.14371556 4294901760
29.415781 -5.5207729 -0.10063206 4294901760
29.404448 -5.5273914 -0.060485005 4294901760
29.422541 -5.5395498 -0.02323517 4294901760
29.475229 -5.5290194 0.08053308 4294901760
29.44088 -5.5488467 0.10588828 4294901760
29.3979 -5.5057545 0.14865229 4294901760
29.425671 -5.5459771 0.19186702 4294901760
29.370634 -5.5909615 0.27459788 4294901760
29.553967 -5.6141639 0.32827079 4294901760
29.383074 -5.5204558 0.35477793 4294901760
29.577946 -5.5629716 0.40339333 4294901760
29.730543 -5.5828567 0.49248603 4294901760
30.037159 -5.6255999 0.53869545 4294901760
29.948797 -5.6565561 0.59312427 4294901760
30.017603 -5.6397924 0.62033647 4294901760
30.377623 -5.7165394 0.71393245 4294901760
30.501558 -5.7277856 0.76148188 4294901760
30.414492 -5.7234845 0.8127057 4294901760
30.365593 -5.7082505 0.84391785 4294901760
31.000023 -5.8368545 0.94665509 4294901760
29.537445 -5.5670652 0.3279832 4294901760
29.392572 -5.58639 -0.22669205 4294901760
29.510933 -5.5942669 0.40543038 4294901760
29.397722 -5.5348725 -0.14070275 4294901760
29.37501 -5.5743041 -0.13777719 4294901760
29.525423 -5.5911574 0.49198967 4294901760
29.338503 -5.5528135 -0.10043744 4294901760
29.768095 -5.6223917 0.53677011 4294901760
29.616976 -5.640842 0.53700274 4294901760
29.360346 -5.545301 -0.071874797 4294901760
29.317959 -5.580924 -0.071811043 4294901760
29.554867 -5.6172676 0.55885798 4294901760
29.393385 -5.5049081 -0.074784562 4294901760
29.327696 -5.5565858 -0.060384337 4294901760
29.775812 -5.6061301 0.56007826 4294901760
29.559483 -5.5917482 0.57038367 4294901760
29.31139 -5.5622187 -0.020357519 4294901760
29.788446 -5.641016 0.6156342 4294901760
29.318956 -5.575295 0.068254203 4294901760
30.059372 -5.7043037 0.70940417 4294901760
29.418661 -5.585515 0.10869446 4294901760
30.128778 -5.7085185 0.75218886 4294901760
29.323092 -5.5789919 0.13116513 4294901760
29.95406 -5.6872711 0.77407634 4294901760
29.350737 -5.5405726 0.13126484 4294901760
29.265535 -5.5331826 0.14795719 4294901760
29.277178 -5.5789652 0.150923 4294901760
29.99505 -5.6563749 0.79252738 4294901760
29.750656 -5.6574707 0.78615445 4294901760
29.353811 -5.5761027 0.19141211 4294901760
30.00699 -5.6943531 0.83694029 4294901760
29.656982 -5.5543261 -0.35274652 4294901760
29.696508 -5.6147494 -0.35040784 4294901760
29.360613 -5.5366144 0.27154061 4294901760
30.647261 -5.8190188 0.93894041 4294901760
29.27585 -5.5002899 -0.30852219 4294901760
29.207928 -5.5367689 -0.30508813 4294901760
29.439737 -5.5194354 0.31243104 4294901760
29.362459 -5.5515265 0.31165925 4294901760
29.320036 -5.5871406 0.31413215 4294901760
29.23152 -5.5209451 -0.27963856 4294901760
29.178307 -5.5601053 -0.27639672 4294901760
29.332277 -5.5749187 0.33712116 4294901760
29.352428 -5.5001407 -0.28351319 4294901760
29.558582 -5.568121 -0.26526386 4294901760
29.355001 -5.5355554 0.33729947 4294901760
29.295979 -5.55057 0.35378087 4294901760
29.303257 -5.5752139 0.16534936 4294901760
30.218237 -5.6895127 0.77788568 4294901760
29.391354 -5.5424175 0.065576456 4294901760
29.261667 -5.5818157 0.082715154 4294901760
30.287216 -5.7085218 0.72656167 4294901760
29.848671 -5.5961814 0.57304871 4294901760
29.787466 -5.4813895 -0.35692638 4294901760
29.98621 -5.5090909 -0.31244731 4294901760
29.952127 -5.5028229 -0.27418947 4294901760
29.752216 -5.513207 -0.23486799 4294901760
29.84911 -5.4868326 -0.15121667 4294901760
29.707914 -5.4814467 -0.10430402 4294901760
30.080616 -5.5562429 -0.064378433 4294901760
29.965975 -5.5439506 -0.026256634 4294901760
30.355787 -5.5800638 0.065275416 4294901760
29.840382 -5.4793177 0.10164302 4294901760
29.85379 -5.4876943 0.16275607 4294901760
29.86451 -5.4837527 0.18898997 4294901760
29.981321 -5.5081916 0.27447918 4294901760
29.963545 -5.5197582 0.31227255 4294901760
29.837456 -5.5112834 0.35741788 4294901760
29.942888 -5.5426421 0.40544564 4294901760
30.323294 -5.5951061 0.49940333 4294901760
30.702747 -5.6560678 0.54772711 4294901760
30.79722 -5.7161999 0.60713571 4294901760
30.717005 -5.6799936 0.6318692 4294901760
31.151381 -5.7665668 0.73216498 4294901760
31.147657 -5.7535348 0.77452236 4294901760
31.16777 -5.7232995 0.80221575 4294901760
31.086395 -5.7422075 0.86083531 4294901760
130.84596 -24.291145 4.2317638 4294901760
130.82228 -24.208925 4.3326683 4294901760
